# 3D point list with one line of data per point:
#   POINT3D_ID, X, Y, Z, R, G, B, ERROR, TRACK[] as (IMAGE_ID, POINT2D_IDX)
# Number of points: 290, mean track length: 9.0395441093130149
17075 -1.1144358666403826 -1.9519994385631114 38.157099657960678 92 89 87 0.51795392932624973 22 5339 28 1557 29 5113
4092 22.227427118664007 5.428007882611614 71.958978230169976 94 114 64 0.41735326840616799 2 7520 3 7141 4 7514 8 6174 15 7079 14 7530 13 5811 9 2204 12 4734 23 5831 17 5811 24 5450 22 5658 28 5603 27 5456 6 7799 5 6042 1 5403
17074 -37.835773857530626 -25.019410465857607 213.14014910897762 55 67 47 0.86579650327721891 12 1237 16 1129 18 1311 20 1357 21 1387 22 1398 28 1541 3 1652 21 1380 29 1591
4091 13.810764229937648 5.9742052442526328 72.042132458714875 123 133 88 0.60108276529436999 2 7515 3 7138 4 7513 8 8339 7 7599 15 5036 14 7538 23 8042 17 5827 24 5470 25 5460 18 5203 22 7962 28 5617 27 5468 6 5730 5 8101
17072 -42.758219983066738 -25.875090896693077 186.99180062634392 4 16 4 0.50998825618054122 14 1393 28 1491 24 1346
4089 -4.6291752785660467 2.4506781819219072 39.815106505001083 64 59 55 0.68433477151122724 9 5378 4 7492 14 7487 19 7749 6 7804
17071 -42.924913816331397 -30.379377146079076 189.78349625648463 22 36 12 0.68885452935760472 15 1144 28 1444 29 1479 1 1590 21 1231
4088 -31.068696892222516 8.1677045354378706 78.165153502050742 65 89 27 0.57679314129705994 2 7454 9 5448 4 7485 13 5859 12 4832 24 5533 18 7365 11 8082 22 8019 20 7458 10 7723 21 7634 29 7594 1 7278
17070 -46.820608394950675 -32.6050357601139 190.51708310027524 17 31 5 0.55369187684243582 2 1636 28 1404 18 1123
4087 -23.187642066072883 7.2904268664002769 79.097416520003335 75 95 46 0.74662329076871348 2 7444 4 7480 7 7581 15 7082 14 7534 13 5833 23 5903 17 5823 24 5497 16 4856 25 5500 26 5793
17068 -45.06514373041837 -35.829442604348344 187.5713270297405 11 24 10 0.54048641074468362 20 4772 25 4905 28 1346
4085 16.835666224139839 4.4437930776645418 78.648025460690235 134 164 100 0.49368215708100771 2 7460 4 7476 8 6120 7 7548 15 7039 13 7997 12 4689 23 5782 17 5768 24 5398 10 2174 5 8047 1 5314
17066 -54.323488273659578 -52.620694962566127 207.51487634887306 5 26 7 0.93360459584554056 4 1317 7 1229 15 850 28 1157 9 1089 23 1147 5 1394
4083 24.268671584642295 3.9378077179996929 79.164910298048468 133 157 99 0.44132640775934046 2 7461 3 7083 4 7474 8 6109 13 5735 12 4675 23 5759 17 2087 14 5399 7 5530 24 5381 16 1580 25 5369 18 5115 22 1904 20 7373 10 5485 21 5376 28 1985 6 5624 1 5310
4211 13.985908243576818 4.7753612217034718 79.299561954231308 62 84 31 0.72066743937622102 2 8656 3 8312 4 8718 8 8292 7 7553 15 7046 14 7493 13 8002 23 5797 17 8021 24 5417 16 4788 25 5404 18 7300 12 6662 28 5570 27 5430 6 7761 5 8051 5 9358
17065 -45.750390685151139 -48.505013145735752 186.68140051033211 45 69 46 0.30011668029872735 7 1205 28 1140 25 1030 6 1236
4082 28.874976307573398 3.5880493354274927 79.816563893551844 84 109 56 0.49466108440640044 2 7463 3 8310 4 7470 8 6099 7 7535 14 7467 13 7974 23 7964 25 7546 19 7730 20 7369 10 5472 21 7518 28 7736 27 5390 5 8038 1 7247
17064 1.5819837417701703 -63.085132175699911 242.43385585945026 109 148 115 0.48055755886922275 4 1308 14 1001 15 815 28 1119 5 1396
4081 38.838109452094066 2.6060243719313916 83.642603038848847 72 88 39 0.56057020720127793 9 7307 4 7447 8 8234 7 7512 15 7005 14 7438 13 7950 12 6606 17 5711 24 1809 16 1503 6 7708 5 8013
17063 -38.195556120112926 -54.661898848674127 203.64375297776795 16 40 26 0.56288600194945793 25 985 28 1109 14 994 26 1124
4080 -0.29894524891059876 0.5036306040703481 38.274794296114052 68 70 69 1.1898165891750749 3 7030 4 7417 13 9322 4 8691 23 9361 17 10086 10 5429 21 9675 29 8705 5 8004 1 7212
17061 -31.730205433225542 -77.605236854693118 247.6530811147949 57 83 52 1.0284204365195302 4 4648 7 4735 11 829 12 645 22 700 28 951 14 4656 10 908 20 660 21 609 29 977
17054 -12.205299956745961 -7.0697599899847212 16.3152263200842 203 210 221 2.7162051658316599 20 39 28 147
4071 -11.025170073789031 14.511839567683122 39.467644353591034 145 147 141 2.0537374506642756 9 7858 12 8905 7 8021 14 9000 24 10308 16 8304 6 8308 4 6421
17052 -46.947439422276815 11.994383518704778 63.025543648615077 78 77 34 0.81484630329317986 18 8751 20 8824 22 10291 21 9787 19 9200
4069 3.5386109388737808 12.034004481757545 36.900980550351598 209 205 191 0.44261368120616157 9 3231 4 6404 8 3868 7 3465 14 6151 12 2581 23 6471 17 3061 24 2916 16 2515 11 3245 20 2917 21 6058 28 8115 27 2825 29 2871 26 6202 6 6500 5 6881
17051 -25.835866897423095 -14.797524520820907 216.33456581886946 81 65 46 0.99670782495575871 13 5444 17 5513 18 4908 21 7407 28 5335 1 4993
4068 3.540546978568007 12.033348455916332 36.896490912621367 209 205 191 0.41795949259900317 9 3232 4 6403 14 6152 23 6472 17 3060 7 3466 24 2917 11 3244 28 8116 27 2826 6 6501 5 6882
17050 -48.927411189839177 12.873077675971532 63.385490583686334 200 184 153 0.49039142181138456 11 8267 18 7516 19 7995 20 7624 22 8198 21 5770 28 5895 27 7801
4067 -12.380145967364395 15.069557663307286 40.935338400940637 104 104 96 0.44969632406070426 3 3613 4 6394 8 3971 10 3537 5 6925
17048 57.807610130024976 -9.157683215966129 152.04841121208116 89 117 59 0.47886913142274401 9 5095 21 5148 2 5289 7 5280 13 5462 14 5164 16 4551 4 5180 15 4728
4065 11.263257379221555 13.640658228360962 44.404531966268486 42 51 22 0.41530349902235436 9 6004 4 6357 8 6860 7 6304 15 5655 14 6127 13 6512 12 5295 23 6452 17 6412 24 6074 16 5342 25 6020 18 5749 11 6422 22 6310 19 2878 20 5917 10 6207 28 2859 27 2829 29 2860 26 6196 6 6446 5 6828
17047 -73.257447869567926 7.9737606124340266 114.55604305925272 165 156 154 0.67753430992514385 2 8601 3 8257 4 8669 9 8610 7 8762 15 7030 14 8740 12 4736 24 7540 16 8048 11 9408 20 8713 10 8983 21 1993 16 1657 22 2046 27 5461 29 7561 26 2284 5 2500 5 9322 1 8414
4064 20.059538534702085 12.133182242705351 43.005333994376372 107 139 89 0.89354973501870627 9 7764 4 6349 7 6272 14 6102 8 6807 12 7048 23 8404 17 2985 24 6027 19 8124 22 9589 10 8064 29 7808
17046 -36.669312798802899 11.6735121352545 56.1189118653949 59 83 23 0.40534985515651423 4 2906 7 2858 14 2598 16 2177 21 2453 11 2805 22 2598 20 2493 10 2937 1 2918
4063 -18.466511476797127 14.597464314149038 40.490533484736346 87 47 12 0.49666991708919994 9 3323 4 6336 7 3475 15 5684 14 3149 24 3002 10 3508 26 6318 6 3715 5 6885
17045 -23.701324850400205 14.312165686808298 38.042382125850089 66 94 21 0.50780261844379648 9 6126 2 6370 18 5851 11 6565 22 6431 20 3004 10 6356 21 2926 8 3988 12 2697 17 3127 24 3034 25 3266 28 6221 27 2931 29 3023
4062 20.699066206935335 11.905655784633597 43.53780023542474 55 85 34 1.0453520152085605 9 5959 4 6329 7 3314 8 3680 14 6081 13 6450 23 6388 22 6226 19 6097 10 6146 28 6092
17043 -6.9035731336588029 9.7369721229131141 36.493202392041418 230 224 219 1.5959725720321949 9 5936 15 2659 14 2889 12 5214 25 2904 18 2552 18 2555 22 2726 19 2712 19 2713 20 2691 20 2694 21 2615 21 2616 9 5935 15 5535 14 5985 10 6145 28 2617 29 2659 26 2835 5 8484 1 6073
4060 -16.50263157060866 14.628337124138389 41.55428918599489 178 145 114 0.3359271697593384 9 3297 4 6327 8 6960 14 3132 17 3088 24 2977 16 2568 25 3188 11 6515 22 6381 20 2964 27 2899 26 3127
17041 -30.272891016346257 10.06035866852554 66.34753675181922 80 106 54 0.62529664566377618 9 10243 12 9332 11 10894 19 10558 20 10086 21 9758 3 9589 4 10003 8 10485 7 10054 15 9170 14 9564 23 10331 17 10168 24 8955 16 8928 25 9751 28 9149 27 9012 29 9708 26 9356 6 10559 5 10669 1 10038
17040 -21.084230672145633 10.653564943809089 59.999397335748704 85 103 55 0.58210625793152693 8 8512 17 8188 21 7735 19 5818 10 5877 6 7991 25 5724 1 5652
4057 -4.4150332616240719 10.889237209146247 36.004290132043216 201 211 203 0.53658692225351767 9 5998 4 6282 8 6845 13 6452 24 6026 11 6390 20 5879 10 6215 26 6161
4185 22.15863183044307 11.854775326880262 44.106617172785853 52 78 33 0.84334924480395246 9 5951 4 7982 7 6250 15 5604 14 6073 12 5231 23 6382 17 2934 25 5937 18 2590 10 6134 27 5914 29 2737 6 6371
17039 -5.6615907632019473 8.4361319555530923 38.737593396926265 70 76 71 2.2843649663975074 3 3122 2 3369 13 6212 9 5810 18 2408 22 6055 10 3017 21 5778 9 5812 3 5759 10 3019 14 2727
17038 -16.887811907660058 15.762643580734197 31.242138929574917 80 106 56 1.6274373769913739 17 10821 24 10358 21 10426 13 11390 17 11280 24 10819 11 11472 20 10454 18 10446 22 11211 28 10611 27 10475 29 10329 26 11235
4055 26.668910280117746 10.899315680893348 45.993223298086242 110 138 97 0.74525225429614195 9 2979 4 6252 15 5545 17 2842 5 3830
17037 -4.6016243562952042 3.0591248849066752 40.486108562726095 18 22 23 0.81469845230752591 9 2233 3 2367 15 1856 14 2069 23 2180 24 1914 25 2096 11 2153 20 1923 21 5391 2 5610 13 5787 17 5766 16 4787 10 5598 28 1934 27 1913 29 2010 26 7893 5 6074
17036 2.527987200923953 -3.209237889760586 39.699154644015827 124 129 136 1.4285600400127281 3 6921 2 7278 8 8088 12 4430 4 1997 13 1637 23 1636 16 4474 11 5401 19 1497 20 4989 10 7447 21 8737 3 8202 19 9819 20 9418 29 1531 29 7301 5 9253 1 5080
17035 2.5147067343598692 -3.2541620418771937 39.668008187159522 120 127 132 1.6319559804106352 3 6920 2 7277 8 8087 12 4431 17 7805 16 4475 13 1636 23 1637 11 5400 22 5263 19 1498 20 4988 10 7446 21 8736 3 8201 4 9464 7 9483 15 9057 14 9453 13 10172 12 8668 23 10168 17 10036 24 9600 16 8782 18 9387 11 10196 22 10126 19 9818 20 9417 23 9286 27 7375 27 9699 29 1530 29 7300 29 8626 26 7666 26 9081 6 9924 5 9252 1 5079 1 9159
4052 -27.438483351506552 13.741285019165584 40.754270555878499 63 73 26 0.91308344287047116 2 6246 3 5902 4 6240 8 6901 7 6273 15 5625 13 3204 23 3263
17034 -24.485191999304092 15.210733853540278 34.450910802385565 66 84 34 1.5146794852858645 14 6309 13 8610 12 7241 23 8575 17 8477 24 8042 20 7930 10 8307 21 8084 14 3434 24 3290 18 6001 22 6613 29 6244
4051 27.719181018003766 10.957958839198216 47.340152952158299 128 158 104 1.1007076898312849 9 5859 4 6236 7 6175 15 5529 17 6269 16 2306 25 2814 26 2728
17033 -25.444145880488282 15.67232991268958 31.74243870182946 69 88 26 1.2771928512385855 23 3884 18 6122 22 6771 21 3365 12 3213 11 6951 19 6646 20 6348 27 3305
4050 -26.086349002617148 13.815578693514752 43.668765376815159 191 160 128 0.57492928659375531 2 6205 3 5865 4 6189 8 6839 7 6242 15 5593 14 6052 13 6422 23 6437 17 6361 24 6051 16 5324 25 6036 22 6312 28 6121 27 5966 29 7856 26 6235 1 6079
17032 -54.002768098144919 10.973646867386188 77.552269198979346 108 100 97 0.54854618776810682 8 6327 11 5966 22 5878 21 5617 2 5578 19 5708 20 5474 10 7792 3 7099
17031 -6.7423748956979592 7.1867065530002634 39.751756067448291 49 46 40 0.91939821924632148 18 5456 19 5802 10 7890 21 7712 9 8744 18 8734 20 8816 10 9121 27 2312
4048 18.593185369592376 11.457772148573165 49.039915282397914 63 77 42 0.5949749310552106 2 6279 4 6177 8 3506 7 3168 1 3476
17030 -3.6315374673554217 0.92079246411210947 38.905423118583677 53 51 45 1.3320588434272236 9 7309 15 8280 13 7928 18 7218 11 7934 20 7316 10 7575 21 5267 17 1882 25 1882 22 1746 28 7653 27 1745 27 7512 6 7725
4047 27.115663476208464 10.689501293558614 49.029099472124059 43 59 23 0.76912087406071894 9 2909 4 6174 8 6650 7 6116 15 5476 17 2791 24 2622 25 2776 18 2450 10 2983 27 2569 6 3221
17027 -3.7552933813286673 -0.63471345215666231 42.255804603099762 137 146 154 0.44708092725195231 22 11584 21 11134
4044 27.338025838980897 10.308200629594278 49.393082628251861 183 159 133 0.72074121556854021 9 5798 4 6142 8 6620 7 6100 15 5454 17 2766 24 2595 16 2230 25 2738 18 5556 10 7939 27 2543 6 3172 5 3671
17026 0.66625038930559599 16.138780201603165 29.735621843347797 22 42 14 0.53846805737551562 18 10795 21 11095 28 11229 27 11098 29 10954 22 11570 26 11342
4043 28.079206623717496 10.341852712644403 50.567825261229963 69 83 39 0.95050218997449054 9 2836 4 6126 7 3093 6 3148
17025 -179.9390573325274 -72.601753455135366 210.04195638905716 76 106 116 1.645134254178807 4 10658 13 11543 14 10805 21 11072 1 10430
4042 -28.828879030703444 12.326331767086298 41.393811370736209 132 161 94 0.49608934999881288 2 6119 3 7472 4 6122
17024 -28.283513523165229 15.277856693116197 33.265666247948459 79 97 45 0.99531455727118945 20 10829 21 11056 28 11221 29 10947
4041 -29.184596221926927 13.024216292728015 43.724374238411009 133 176 94 0.60707896450508314 2 6122 3 5798 4 6120 8 6794 9 5969 7 6201 15 5553 14 6005 13 6368 12 5260 24 5992 16 5288 11 6373 20 5851 10 6197 1 6013
17022 -21.631254065345352 16.005919322716831 29.57729933301799 126 90 50 0.24229136028600218 19 11180 20 10737 21 10989
17021 -20.515696853602346 15.245222862876002 34.87162752768949 62 79 38 0.25745291879213994 19 11068 20 10609 21 10873 28 11059 29 10775
4038 21.672751891004367 10.580827615350907 50.653796063459815 103 126 79 0.60479394042331802 2 7855 4 6105 7 6078 15 2553 5 6595
17020 -14.293699145896678 9.2627640371861002 69.121811453006458 111 111 73 0.57883581857491428 11 11416 19 11032 22 11140 21 10835 18 10588
4037 3.5586488431308729 8.4825009112353875 38.855551277446203 216 220 214 0.42734794263071163 2 6172 4 6092 8 3454 7 3096
17018 -3.8692450978771409 16.780219215300612 27.758454306716363 73 78 41 0.78219649475859854 18 10475 21 10725 28 10923
4035 2.3102739241412165 8.4895090616735001 38.904526263135693 171 183 169 0.42228438301192933 9 2894 4 6081 13 2925
17015 -16.000616906825261 15.867202461666858 31.156448188386534 234 185 144 0.498964009059849 20 10219 21 10691 28 10615 27 10478 29 10331 26 11052
17014 15.983952183873701 13.094341061238064 43.687705221647228 29 52 23 0.60656425379525247 22 11169 21 10657 28 10878 27 10724 29 10576
4031 22.487454055707371 10.433885487844623 52.809147616586436 49 75 30 0.57969541794671742 2 7833 3 7491 4 6061 8 6574 7 6047 15 5403 14 5896 13 6218 12 5065 17 6164 24 5814 16 5133 25 5781 11 6135 22 6030 10 5941 27 5773 29 5717 5 6559 1 7637
17013 7.5626629496527009 7.2559288402452387 48.867472625038083 52 63 21 1.8431079505109746 10 10956 21 10635 1 10416
4030 -21.059581009160677 12.860684203364546 49.160283721902083 52 62 12 0.3901720491760105 2 3359 4 6049 8 3563 7 3143 13 3000 23 3019 25 2915 6 6328 5 6641 1 3321
17011 -29.243731502921342 -4.6436395748572297 163.39170022417153 103 110 73 0.86124050994046453 13 11112 23 11142 21 10607 29 10522
4028 -27.29729010781503 13.072522636960061 48.239249056764791 119 136 85 0.38723364845970598 2 7791 3 5725 4 6041 7 6123 15 5485 14 5950 17 6265 23 6355 16 5243 25 5951
17010 36.668257786398087 -3.4952824145843655 125.06109182786625 88 119 60 0.48841370787223082 11 11193 12 9616 18 10339 22 11111 21 10603 28 10817 27 10313 29 10520 26 10594
4027 -16.808490658304994 12.766163952171814 50.852194551051852 60 67 42 0.55181683568315387 3 3109 9 5871 4 6033 13 6284 23 6319 17 6237 18 2532 11 6284 22 6167 19 2675 10 3106 1 5936
17009 -61.524860532647843 -27.977808891379155 188.00083805226947 35 52 34 1.0432129443653753 9 10370 10 10602 13 11083 17 10964 24 10514 21 10572 12 9580 15 9907 14 10323 16 9684 25 10471 27 10646 29 10496 26 10924
4026 27.297971789385077 9.791395998247582 53.852539797210682 73 95 46 0.54632340910945776 9 5709 4 6028 8 6527 7 5996 15 5370 14 5841 12 5014 18 2292 19 5829 10 5882 29 2458 6 6105 5 3491
17008 3.0021208994445501 -7.7470423667172685 36.360193057233964 225 226 223 0.42925250537641019 13 11282 17 10940 21 10516
4025 -2.1718891888374676 7.8517439932192481 38.472722274697908 65 59 53 0.73785322573419332 3 3110 4 6017 8 6596 7 7844 14 7751 13 6191 12 5076 25 2693 18 5521 11 2784 22 8173 20 5638 28 2440 6 6199
17007 2.6146879646283341 16.67107140726085 28.346295271907394 45 59 23 0.68058261369940432 17 10438 21 10469 28 10236
4024 -28.161699437849851 12.628663727800232 48.433139370403659 148 153 112 0.3443679342386668 2 6005 4 6015 13 2971
17006 -19.034126514198199 16.193639047095253 26.221830552895128 45 78 27 0.8513792933567409 18 9771 21 10462 28 9543 17 10427 27 10067
4023 14.470395634786405 11.120529007098575 55.996586393291381 60 55 32 0.39819390668188093 2 7811 4 6011 8 6565 7 6012 15 2485 14 5868 13 6204 23 6218 24 2555 19 5884 20 7632 10 5945 21 5775 6 3092 5 6523 1 7606
17005 7.1460750187823772 15.274115766711965 31.61926204396422 36 53 28 0.46226863667973078 20 10222 21 10434 29 9853
17004 -28.716343608735613 15.961522968203175 30.384737744656679 66 89 30 1.1788970451046445 20 10216 21 10427 28 10155
4021 -5.6610586296943328 7.9294717003799722 38.65168627289313 88 89 83 0.71890701427646631 9 5773 4 5979 8 3372 12 2261 23 2797 24 2498 16 2163 25 5783 18 2344 11 6153 19 5883 20 2488 10 2960 28 2437 27 5706 29 2457 26 5973 1 5881
17003 -29.6263357888845 15.359571245749853 32.739034739049394 68 87 47 0.63135083218366905 19 10655 20 10193 21 10407 28 10124 29 9837
4020 -5.6597630103893888 7.9255045828871591 38.626042597679472 88 89 83 0.73375275576775678 9 5772 4 5978 8 3371 7 6011 15 2444 12 2260 23 2796 17 6119 24 2497 16 2162 25 5782 18 2343 11 6152 19 5882 20 2487 10 2959 28 2436 27 5705 29 2456 26 5972 6 6198 1 5880
17002 -33.244683849857012 15.058957500941364 35.547637461762029 58 88 23 0.83339920335417783 20 10169 21 10384 28 10580
4019 2.4494847291064996 7.3827201783989107 39.058915721717014 79 72 69 0.37960400825115753 9 2740 4 5974 15 2407 12 2193 2 3336 11 2694 20 2421 21 2351 27 2368 29 2391 6 3094
4147 13.163330153791208 10.380215310221569 57.948105901906047 56 65 34 0.59576197712421664 2 7764 3 7388 4 7760 8 8535 7 7791 15 7278 14 7716 13 8283 24 7731 16 6989 25 7769 28 5868 27 5731 26 5961 6 8006 5 8313
17001 -27.574176748210419 14.314603991644983 38.267841380717421 250 198 151 0.47890612341867939 18 10407 19 10614 21 10373
4018 -32.130503226833056 12.206969493947394 47.001189015948697 150 159 105 0.65815489168468733 2 5976 3 5662 4 5970 15 5449 1 5891
17000 -22.92217513478257 14.376204934196418 41.928988003291522 45 67 17 0.2580527518530959 11 10971 21 10372 28 10564 27 10420 29 10272
4017 24.268699250403053 9.8418157593053106 56.35640887863331 72 88 49 0.55119663179782408 2 6078 3 5756 4 5957 7 2917 15 2396 14 5804 16 2104 6 3002 5 3430 1 5847
16999 4.9718988227889636 10.035026054955509 37.432043110760738 213 215 202 0.48958637369926628 23 10893 21 10356 27 10401
4016 24.16771024440094 9.7704514465909007 56.086458518394622 72 88 49 0.66511534693445395 2 6077 3 5757 4 5956 8 3187 7 2918 15 2397 14 5803 12 4995 17 2610 24 2435 16 2105 18 2258 11 2624 20 5577 29 2438 6 3001 5 3429 1 5846
16998 -39.747887081140377 12.41135241536483 47.131486332592445 99 117 50 0.81587824346972893 11 10948 21 10349 27 10399 29 10253
4015 -5.441180607644494 7.6452670343826155 38.511168724896095 80 81 75 0.48336039413840098 9 2773 4 5953 1 3178
16997 -34.421783303408922 12.435976066771239 49.628954700927736 84 96 64 0.82865561462484538 23 10881 21 10345 27 10398 29 10249 1 9774
4014 15.025403429888243 10.517669801919254 57.192579938205483 159 137 97 0.41845248024432619 2 6028 3 5719 4 5944 8 6516 7 5964 15 2411 14 5812 17 2638 24 5767 16 2141 25 2647 27 5745 6 6091 5 6468
16995 31.698896878977141 2.0615972343880551 90.512822800966106 87 111 59 0.54256445605879333 17 10104 21 10280 24 9677 29 9631
4012 -33.069759382414553 11.715765110692946 46.863252312351882 137 154 87 0.79335096630435475 2 5943 3 2925 4 5934 15 5424 17 6204 1 5853 9 5852
16992 -51.268749417048042 -55.792380022248899 204.58469297877687 37 60 34 1.1965826759250282 2 9731 3 9407 4 9837 7 9858 9 9692 11 10673 13 10646 14 9905 15 9484 17 10520 23 10658 24 10069 21 10127 28 10351 27 10193 29 10048 26 10471 6 10353 5 10476
4009 -4.5779011017403839 7.302152108129806 38.552132382696016 75 70 64 0.61116527215382466 2 5982 4 5927 8 3287 7 5966 15 5314 14 5785 13 6131 25 5730 18 2278 20 2412 10 2881 28 2370 1 5828
16991 -0.14360253742074094 16.309651044289335 27.995616426938156 194 155 110 0.8001435591181284 18 9762 21 10022 28 9558 27 9390 26 9696
4008 -17.235910852005563 12.044145973528595 53.824683537813307 39 45 16 0.45120363061329999 2 5956 3 5640 4 5925 8 6613 7 6014 15 2487 14 5865 6 3199 5 3523 1 5821
16990 -12.067382493381368 15.985488785582133 27.804249109760704 113 158 93 0.25877936134376339 18 9096 22 10517 21 9998 28 9510 27 9344 29 9918
4007 -22.775281358188053 12.126734129323438 52.276199915871722 131 141 96 0.29553713858536673 2 3194 4 5924 8 6633 7 6038 11 6231 6 8098 5 6547
16989 8.444711816413669 15.670851264847006 30.254715106471853 55 62 27 0.84846796386212475 19 10223 20 9787 21 9987 28 9486 29 9220 22 9850
4006 11.367959840083476 10.484641840344253 56.869417796374144 78 95 47 0.25335957820509913 2 6007 3 7399 4 5919 8 6515
16988 -27.60553570448506 16.005981550723806 29.636415217077428 75 94 51 0.42811285563846119 20 9760 21 9952 29 9222
4005 -0.67720377456799807 6.8899766797665682 38.517512914947602 70 67 60 0.71260033759626995 2 5986 4 5915 8 6522 15 5299 13 6110 12 5004 23 6102 17 6051 24 5701 16 5053 25 5695 18 5452 11 6072 22 5926 19 5797 20 5570 10 5910 21 5675 28 5768 27 5627 29 5613 26 5901 6 6114 5 6482 1 5816
4133 18.015055092431762 9.1242791862680477 61.575834523613416 152 147 99 0.38783850000572823 2 8782 4 7684 3 8451 8 8468 9 5611 7 7737 15 7217 15 8438 14 7653 13 9472 12 6824 17 8174 24 7675 16 6946 25 7704 11 5982 22 2323 10 7804 26 8017 6 7942 5 8254 1 7479
16987 -25.892276016655796 15.320402647229642 29.48639988323885 75 108 27 0.8326431572635169 19 10188 20 9743 21 9937 27 10000
4004 -8.2553055712918813 8.0821774307418277 41.079754685108803 79 89 83 0.86758201685559888 3 5645 4 5914 8 8589 2 7738 7 5975 15 5329 14 5793 17 8220 24 5759 16 5095 25 5763 26 5968
16986 -5.2903406943090632 15.591942012426422 34.444367975765999 121 122 100 0.56647844340804132 11 10497 21 9919 29 9835
4003 25.09153256344451 9.1419182101318324 56.545489932743045 61 82 39 0.78292606344115834 2 6021 3 5711 4 5908 14 5762 24 5706 25 5671
16985 -24.433373223887195 15.053513720262822 32.248258617674509 74 83 40 1.7157504604240832 18 9694 19 10654 22 10426 21 9914 20 10194
4002 -28.789466953071138 12.042327959245542 50.951314431657352 89 90 59 0.37087758674244026 2 5937 3 5604 4 5906 7 6032 15 5396 14 5876 13 6224 8 8637 23 6269 25 5875
4130 -39.414041920396286 11.661998758285991 56.706399145051385 62 84 20 0.64414898204699056 2 5783 3 5454 4 7660 7 5900 14 7687 18 7522 19 7998 20 7628 10 7934 1 7460
16984 -27.323163375934456 14.864525204992624 33.563185195443168 99 116 62 0.79555934978097032 11 10481 19 10133 21 9893
4001 -29.516371777552784 11.793717519827496 49.889179427136959 122 146 71 0.50661969067308832 2 5923 3 2906 4 5905 8 6646 7 6029 15 2499
16982 -11.621261894155568 11.837581321426692 41.291997584913553 147 155 153 1.0368830437727738 22 10338 21 9831 28 9249 27 7891
3999 11.732539993795815 10.417862106050668 58.908253492291529 59 64 23 0.51120410002013206 2 7748 3 7373 4 5894 8 6489 7 5933 15 5310 14 7703 13 6123 17 6100 24 5748 16 5080 25 5713 6 6055 5 6426 1 7540
16981 -13.50118420804027 11.156018646071663 51.727433543306063 55 68 24 1.3662023630441076 19 8023 20 8853 21 9803 29 10242
3998 19.937811298028855 9.5653705255036652 58.061500783099746 77 89 43 0.45264924447012711 2 5995 3 3016 4 5887 7 5906 13 2694 17 2567 14 2577 24 2383 1 3085
4125 32.866961914229918 7.143435159356609 62.729121349616044 65 82 34 0.56616787106648436 9 7458 4 7644 8 8401 7 7688 15 7160 12 6754 24 7618 16 4926 6 7882 5 8197
16979 15.040678793628167 9.9994321095929593 58.831264507622279 190 153 123 0.16854559233812247 11 10350 19 9998 22 10276 21 9778
3996 25.627162778786939 8.8686877580134507 57.579948441403673 59 76 33 0.77584022532619135 3 7387 9 2574 4 5875 1 5770
16978 -5.8395201897936415 5.5326586271750369 42.445528038183689 27 32 35 1.013226925838016 19 9957 21 9737 28 9097 29 9671
3995 28.958240631535382 8.7254651218502222 58.437305879248193 67 89 32 0.64639064907551003 9 5626 4 5874 8 6420 7 5876 15 5257 14 5730 12 4936 23 6060 16 2000 25 2473 18 5402 11 5984 22 5871 19 5714 10 5776 28 5781 27 5641 29 5611 5 6371 1 5765
16977 -29.555328220604419 -0.79302276608903266 157.36652120692253 132 133 135 1.003659349230309 11 10821 17 10080 19 10503 21 9686 20 10035 28 9921 27 9766 29 9620
3994 -30.169250337387503 12.109322272266414 54.03372281574601 87 87 59 0.61961372383126367 3 2840 9 5782 4 5862 8 6605 15 2443 14 5826 18 5579 11 6214 22 8230 10 6041 19 2588 28 2562 27 5788 29 7750 6 6206
16976 -97.517361934348074 -7.5985489097442347 214.09971634018149 95 103 114 0.60525946778950346 7 9488 8 10906 9 9834 10 10276 12 8700 14 9471 16 8822 18 9422 19 10495 22 10186 21 9674 28 9912 29 9615 26 10062
3993 -30.608527318677201 11.98382919170542 53.69682031545463 115 114 85 0.37200533234679223 9 5776 4 5858 7 5980
16975 -22.852155277871212 -18.327437456879245 223.23774215611209 75 72 41 0.86474345417178167 2 9337 8 10347 10 9710 22 10151 21 9645 28 9885
3992 -3.5547639749895872 6.5268628313955057 38.980491379797549 86 72 69 0.75306342935671 3 5581 4 5852 8 6478 9 7567 7 2843 13 6050 12 4981 23 6069 17 6013 25 5664 18 5422 11 6031 22 5893 19 5750 20 7557 10 7855 21 5639 28 5746 29 5584 6 6065
16974 -18.420723075042154 -22.839688881623871 209.64695554657209 72 89 49 1.1760971217606642 9 9284 10 8837 11 10175 12 8648 13 10149 18 9382 19 8969 20 9409 22 10133 23 10173 21 9630 28 8954 27 8798 17 10028 29 8654 1 8299
3991 33.843006011389555 8.0364243205045671 58.626668124925189 77 75 36 0.57040775495107221 9 2502 4 5849 8 6385 7 5834 16 4997 25 5592 18 2119 5 6331
16973 -20.842206617941848 -43.471827430703492 206.38312822186214 7 25 11 0.53569689652553709 8 10247 17 9935 21 9552 28 8868 29 8564
3990 3.4749858830940705 6.0153343557469379 39.221852728752474 74 65 57 0.60805256877723035 9 2586 4 5847 15 5228 14 5702 17 2430 16 1943 19 2262 10 2699 21 5594
16972 -66.132154697245113 -53.783939986740506 204.67078694459749 44 66 43 0.69621831408334423 2 9191 23 9133 21 9530 27 9608
3989 10.845734114726696 10.108257175398849 61.261931058860021 89 82 48 0.46214941072780918 2 5920 3 5594 4 5838 7 5881 15 5271 14 5742 13 6068 16 5051 6 6024 5 6365 1 2982
16971 9.292181025899211 16.264465358664342 29.127062210062892 89 113 73 0.55699563393466289 18 8059 21 9397 28 8490 29 6602
16970 -13.693078443547693 16.371001393817931 26.967614922439253 2 29 0 0.69819918546399751 18 8102 21 9391 28 8481 27 6616
3987 22.465027447290083 8.8297528750830399 60.216838219886178 173 156 113 0.444830575075984 2 5935 3 5608 4 5820 7 2768 15 2252 14 2479 13 2605 23 6050 17 2483 24 2304 16 1985 25 2461 18 2159 11 2467 20 2272 10 2580 21 5624 27 2318 29 2322 6 2858 5 3221
16969 -12.365990708139629 16.000996593972726 26.752293424363142 7 38 3 0.31751576833503203 18 9121 21 9383 28 9537
3986 20.32385353611992 9.0080165354004347 60.433061995948535 134 141 100 0.38450343477936183 2 5929 3 5597 4 5815 7 5843 15 5232 14 2485 21 2283 6 5970
16968 -14.731767428308196 16.184981851296012 26.818023046232739 13 41 7 0.50051794324354004 18 9130 21 9382 28 9538 27 9370
3985 -4.3512345695176746 6.355533976440384 39.545981967348808 106 100 97 0.78166450070782911 9 5653 4 5811 17 5994 18 7431 11 8193 10 7841 21 7678 28 5726 27 5582 29 5576 5 6410 1 5732
16967 -3.3382657590289484 16.192991910984563 28.494940566248744 40 64 28 0.45776571331001281 18 9099 22 9886 21 9374 27 8317
3984 23.405414481082463 8.7657214495001377 60.738867206272992 43 67 25 0.61345190022667107 2 3153 3 5599 4 5807 8 2993 15 2236 13 2589 10 2566 6 2836 5 6316 1 2948
16966 -21.14950981947651 16.20837728503583 26.749103856012262 104 131 86 0.5713790705188484 18 9126 21 9371 28 8456
3983 13.151317330284261 9.7220659434542256 61.975264556654302 166 152 117 0.53359465595130606 2 5900 3 5563 4 5805 8 6423 7 5848 15 5242 14 5721 13 6044 17 6039 23 2635 24 5688 16 5024 25 5656 22 2365 11 2526 19 2311 20 2318 26 2529 6 5986 5 6342
16965 -8.3959039967169922 16.118437265973533 28.323908492269883 44 64 27 0.32901591424290333 19 9570 21 9364 29 9267 28 9519
3982 -29.78030662717461 11.603182546431249 55.411395403165166 102 123 74 0.44138408438028759 2 5845 3 5505 4 5798 7 5944 13 2756 17 2639 16 5125
16964 -22.721573667422906 16.21330646137196 27.204691662165107 29 50 12 0.94568744227347501 18 9107 22 9887 21 9358 28 8437 27 8306 29 8246
4109 -23.525307216180778 9.140828834746122 63.369037460490851 138 163 108 0.5407237184198872 2 5679 9 5567 4 7573 8 6367 7 5733 14 5612 13 5952 12 2012 23 2574 17 5944 24 5635 16 4975 25 5636 18 5387 11 5970 22 5869 19 5706 20 5484 10 5770 27 2269 26 2528 6 5921 5 6191 1 5507
16963 -10.408524210905131 16.274101888212552 29.041835196204357 68 84 51 0.44330579836239914 18 9084 22 9870 21 9348 28 6712 27 6517 29 9261
3980 34.738822952935799 7.603406822573584 60.193352804774328 243 208 167 0.54046051891235969 9 2449 4 5793 8 6354 7 5795 17 5971 16 1898 25 2360 18 2082 10 5698 26 2353 6 5899 5 6289
16962 -3.7066202749628778 15.974624477682111 29.139176076646976 30 52 16 0.50265714487375612 19 9557 20 9179 21 9346 28 9499 27 9334 29 9253
3979 34.738822952935799 7.603406822573584 60.193352804774328 243 208 167 0.54046051891235969 9 2448 4 5792 8 6353 7 5794 17 5970 16 1897 25 2361 18 2081 10 5697 26 2354 6 5900 5 6290
16961 -8.2262942163062558 16.101734650114238 29.027475320993862 44 59 30 0.12236124051629839 19 10241 21 9344 28 8416
3978 13.429892195958139 9.5472357988719825 61.814253745419215 85 83 45 0.40063212035914675 2 5895 3 5557 4 5791 8 3025 7 2772 5 6325
16960 -1.4709517105157726 16.336014531631871 32.013010034186735 214 165 114 0.25542343794581113 11 9885 19 9515 21 9312 28 8386
3977 19.262532183653928 9.1729949310420409 62.08069796221406 67 49 27 0.40868700900441696 2 7705 3 5567 4 5790 8 3008 7 2746 15 2241 14 5697 24 5669 25 5634 11 8173 28 5780 27 2335 6 2855 5 3204
16959 -26.432798087493566 15.96890572918203 28.739104758786137 47 57 22 0.69681415498515231 19 9542 20 9150 21 9303 29 8172 28 6606
3976 -31.666067053721282 11.343886854943714 55.066067563938425 67 79 33 0.30870085260980923 2 2961 3 5493 4 5783 7 2869 15 2374 25 5805
16958 -3.4934048891467562 16.110624736750427 31.866212623326316 146 151 117 0.41119775247010965 20 9122 21 9298 29 9200
3975 -37.754082511356174 11.239606726860192 52.907315358729328 66 89 29 0.42397366712979895 2 5813 3 5476 4 5778
16957 -26.691638637430653 15.814251998793175 28.759276635376924 210 210 148 0.54486179233441312 19 9536 20 9138 21 9296
3974 -2.6387203620076871 5.6739057061082692 38.688242530180325 68 65 66 0.37767558726888539 3 5520 4 5777 7 2730 15 2183 16 1904 25 5599 1 2920
16956 -22.736739185050229 15.890507233136352 30.363596565261297 73 86 40 0.35162101954747332 18 9721 20 9111 21 9277 28 8349 19 8503 20 8080 29 9202
3973 8.747789262782705 9.6227158046454733 62.794352291490881 31 47 12 0.65911093410546806 2 7677 3 5527 4 5773 8 6406 7 5822 15 5224 14 5699 13 6029 6 5972 5 6306
16954 7.1121365775409977 15.396411101907633 33.289545317103531 54 79 37 0.64045802014609265 19 8400 21 9268 29 8048 22 6746
3971 14.813040139149189 8.7942481375375099 62.107303009796908 143 149 111 0.59058727577593573 9 5587 4 5762 6 2803
16952 -29.11164291523918 15.904128438154224 31.545928842083683 42 62 14 0.31478464297081388 20 8029 21 9248 28 9407 29 9181
3969 34.731260826784514 7.1447022007344634 61.672789524074496 65 86 30 0.68524316900506443 9 2400 4 5751 8 2846 7 2636 15 5154 17 2365 25 2305 10 2432 27 2172 6 2686 5 6239
16951 -29.009840781612461 15.47016037785588 31.204429562150207 153 188 104 0.5462122353000195 20 9074 21 9239 28 8286
3968 -24.997998384151547 11.060039429430518 59.168238419762815 78 51 25 0.33567473740782 2 2902 3 5475 4 5750 7 5878 15 5276 14 2537 12 2184 25 5762 22 2510 10 2826 21 2391 6 6076
16950 10.678386123001564 14.767943435157205 38.018914871658353 106 123 95 0.14856733712660786 10 9311 21 9184 29 6124
3967 11.502496756895178 9.1661937514027549 63.619745601016106 105 126 67 0.24493209202411795 2 5846 4 5744 1 5651
16949 -28.759478346601444 14.344538411573525 33.023936974529946 74 71 32 0.9970321713685113 11 10469 19 9398 21 9181
3966 -25.510396068148133 10.988066487999614 59.614246360220385 198 176 147 0.36633513832441483 2 5793 4 5740 8 6481 7 5867 15 5260 14 5732 13 6071 23 6142 17 6069 24 5740 16 5074 25 5756 11 6090 22 5996 19 5840 21 5733 27 5721 26 5994 5 6355
4094 -2.1648510675261647 2.7540281315025985 38.464420409500718 71 74 76 0.60414609336538816 3 7134 4 7518 8 8342 7 7592 15 7060 13 8027 23 7990 17 8006 24 7515 25 7566 19 7763 10 7678 28 5501
16948 -29.876652484525923 14.960613702915104 34.504289552346918 74 71 32 1.1108207176317304 11 10468 19 9397 21 9180 29 7991
3965 28.193365931235384 7.7711325345089897 63.418706185289771 191 184 139 0.44403789556205564 2 5864 3 5524 4 5739 7 2650 15 2127 6 2705 5 3093 1 2819
16947 -30.338778305646603 14.685061608749823 34.30225099705968 65 90 32 0.98600635597523001 19 10122 22 9696 21 9174
16946 -18.953919000298409 14.847131202659277 36.367920884387694 77 98 60 0.3035369084706086 18 8915 22 9682 21 9172
3963 31.840804493862123 7.0894907977986623 63.866203179081197 54 77 26 0.65270093508467597 9 2371 4 5724 8 6293 7 5727 15 2068 14 5586 12 4836 23 2412 17 2337 24 2137 16 1834 25 5530 18 2020 11 5857 22 2146 19 2115 10 5653 27 2161 26 2289 6 5846 5 6204
16945 -27.647031777083669 14.310795731924081 41.103268196288376 109 110 65 0.27827042201988983 11 9667 21 9131 10 9260
4090 -1.4583500909698126 2.577848260663735 38.099349504576239 51 40 44 0.38464816862065315 3 5285 4 7510 8 2615 6 7820
16944 -29.117748552740583 13.949121665921178 42.115743543336954 96 93 74 0.13422743456617853 18 8862 21 9119 29 9000
3961 25.744856359410385 7.5789921631701942 64.766248024642294 33 50 9 0.54649431304369311 2 5829 4 5715 8 2828 15 2087 14 2308 16 1852 11 2336 22 5763 20 2114 28 5705 6 2672
16943 14.86754968896833 12.903647196444538 45.918870202966211 34 60 19 0.46879672625365831 19 9278 21 9106 28 9259 27 9124 29 7813
3960 25.677024520534058 7.5638510035687103 64.543019937414726 33 50 9 0.43734134890626636 2 5828 3 5490 4 5714 8 2827 7 2615 15 2088 14 2307 13 2450 16 1853 11 2337 20 2113 10 2438 6 2673 5 3035 1 2764
16942 15.89464822813758 12.626844084264173 46.258856800248722 53 70 36 0.4674149479592431 22 8308 21 9098 28 8076 29 7804
16941 -38.414671321837275 12.820570649813197 45.94383794674593 67 86 18 0.96503005301007527 11 9617 19 9267 20 8902 21 9079 27 7883
3958 -5.9698673748259585 5.5843218946007314 42.241900137294451 23 27 26 0.81636822067089243 2 5774 3 2629 4 5704 8 2938 7 5761 15 5140 14 5595 23 2454 24 5573 16 6891 25 5566 11 2390 22 2190 20 2150 27 2114 26 7968 5 6269 1 5604
16939 -22.319093156724165 12.692654811757153 48.803219813537339 122 138 67 0.24697624675394772 11 9602 19 9249 21 9073
3956 32.694988708189179 6.7932244416919332 64.822494706236071 71 82 38 0.68711619251717604 9 5503 4 5701 8 6279 7 5708 15 5113 14 5572 12 4806 23 5929 17 5900 24 5541 16 4903 25 5514 18 5270 11 5834 22 5727 19 5589 10 5634 28 5675 27 5530 29 5495 26 2266 6 5823 5 6181 1 5582
4084 16.698444295745727 4.3864276203411716 77.921643735892545 134 164 100 0.57056415197377552 2 7459 4 7475 8 6119 7 7547 15 7040 13 7996 12 4690 9 2111 23 5781 17 5767 24 5397 25 5389 16 1609 10 2175 21 1906 28 5561 27 5418 5 8046 1 5313
16938 -4.9945910226468477 5.3685024008407902 45.196187708511367 79 79 79 1.6002907927813983 11 9443 19 9946 21 8933 29 7567
3955 -32.015543770135089 10.614185194620665 62.180017423270883 56 69 13 0.44473498125684996 2 5724 3 5393 4 5688 8 3065 15 2212 6 6020 5 8230 1 5572
16937 -154.22443636886936 -1.2241395386955085 177.92688929382987 40 46 46 0.75186549144903103 2 8529 3 8188 13 9306 14 7357 21 8854
3954 0.64865613720700621 4.1440256906154742 38.31966264237461 84 89 93 0.4660644469779649 3 5425 4 5685 7 2567 15 5099 14 5544 17 5850 24 5488 16 4864 25 5490 11 5854 22 5691 20 5377 21 5470 28 5586 29 5410 6 5874 5 6221 1 5574
16936 -22.60280127378882 -2.6348701411969948 168.76284379021922 127 127 129 0.57857498669930885 9 8526 10 8912 12 7843 18 8560 19 9020 22 7841 21 8836
3953 -29.157296386262697 10.172775049044352 61.464994857364047 47 44 3 0.25968184828989993 2 5719 3 5390 4 5679 7 5790 15 2196 8 3038 14 2419 13 2560 16 2021 25 2581 6 6002 5 6266 1 5569
16935 1.6448224007173577 0.55230018358410604 37.770485592404967 53 52 50 0.43958026643309916 16 6728 21 8821 29 7417
3952 23.059938135426055 7.1938992616967843 66.212429523559308 82 98 48 0.42634725846891314 2 7604 9 5504 4 5677 8 6281 7 5699 15 7133 14 7592 13 8114 12 4828 17 5902 19 5601 28 2182 29 5511 6 7864 5 6164
16934 -20.711764351691681 -13.509516694252182 214.97235398404786 115 119 84 1.0588476507452071 8 10355 9 9317 10 9721 22 10163 21 8805 2 9347 29 8693 1 9135
3951 16.033422276113694 7.5555058714599825 65.783276190749859 44 59 19 0.53463909971583479 2 5768 3 5434 4 5669 7 2570 6 2645 5 6171
4079 3.8382710598386924 0.023674796938436039 38.054063789564466 76 70 70 0.64300471491248357 2 8626 4 7407 8 8189 7 7462 15 6960 20 8651 10 7542 6 7690 5 7987 1 8429
16933 -43.304772417975265 -16.410552878904586 215.35276715578811 4 13 5 0.74723811046024902 24 8792 25 8765 21 8799 5 9217
3950 -44.752918239425092 11.754055855361747 65.655094555256468 87 93 43 0.62705420051853134 2 5691 4 5662 9 7548 8 8502 7 7713 14 5682 13 6031 17 6032 11 6078 21 2360 1 7397
16932 -30.569965063204208 -22.349328550416711 222.72664328383257 66 80 51 0.82366080185634805 3 8152 11 7800 18 8514 20 8603 22 9230 21 8777 20 7193 29 7358
3949 13.174926026313727 7.1641985728032154 68.077591294383652 69 87 41 0.51537926859401895 2 7571 3 7188 4 5623 8 6255 7 5667 15 5095 14 5540 24 5539 16 4895 25 5522 18 2005 20 5392 10 5638 28 5673 6 5803 5 6129 1 7363
4077 -3.7768007811470716 0.2384108493450926 38.657885344711573 90 85 82 0.82533799284600029 2 5435 4 7387 8 6034 7 5444 14 1812 13 1882 17 1814 6 5560 5 5897 1 2200
16931 -25.987213713659614 -23.004216104904838 214.02470654227838 4 16 5 0.9008598378006194 8 8023 20 8596 23 9298 21 8764 14 7245 28 8955 29 8658
3948 10.050583874872933 7.3847018693470492 69.175689291100312 177 160 125 0.65827651947813925 2 5697 4 5617 8 6254 7 5665 24 2111 25 2272 27 2148
4076 2.3425536873696329 -0.63892634059550024 39.489583189978795 111 106 104 0.74025940673995627 3 7000 4 7373 8 8170 15 6933 14 7367 13 7890 12 6558 23 7862 17 7876 24 7397 16 6694 18 7169 22 7802 19 7646 20 7272 21 7414 29 7387 6 7665 5 7945
16930 2.7553725957283763 -3.0723117230799852 39.453247009664395 79 80 84 0.60317195426826598 20 8609 21 8743 27 8774 23 9296 29 8631
3947 13.048811324271481 6.844215447254772 68.580635231470723 126 141 95 0.52725451802130818 2 7559 3 7176 4 5596 7 5651 15 5083 14 5521 13 5881 23 5916 24 2069 22 5721 10 5618 28 2136 6 5787 5 6105 1 7347
4075 -0.39019855250350888 -1.9382042096014234 38.687917149596949 138 133 137 0.95771981321432675 2 7309 4 7323 15 4755 12 4493 13 5492 23 5509 17 5510 18 4905 22 5343 20 5051 10 7483 29 1612 6 5433 1 7118
16929 95.182165854601422 -33.459211895050039 267.22488731851695 91 118 63 0.80264308086713243 7 7308 8 8004 10 7339 11 9224 12 6433 13 9213 17 7774 19 7530 22 7678 23 7751 21 8727 3 6839 4 7208 14 8589 16 6602 24 7298 16 7896 27 7387 26 7680 5 7741 1 8303
3946 33.124090782317182 5.3730211094526821 68.871706045756483 132 158 106 0.70094729656142085 9 5399 4 5593 8 2622 15 1909 14 2134 13 5836 12 4737 23 2245 24 1989 16 1697 25 2126 18 1884 11 5752 22 5657 19 1989 10 2257 28 5605 27 2034 29 2092 6 2491 1 5465
16928 91.378027283077387 -32.906883569076903 265.15838838217735 83 112 56 0.7511238418244417 2 8496 3 9011 7 8638 8 9474 9 8434 11 7757 12 7740 13 9215 14 8596 15 8159 17 9156 18 7073 19 8948 20 8577 22 7681 23 9259 24 8733 25 8702 21 8726 28 7539 27 8784 29 7320 26 9089 6 8963 5 9192 1 8302
3945 30.24720325021342 5.6249285019698378 68.800191658983792 73 77 43 0.57820679529677688 2 5704 4 5592 3 2525 8 2633 7 5627 15 1922 14 2148 13 2252 12 1745 23 2267 17 2207 24 2000 19 2005 28 2075 1 2567
4073 -1.3831537930883226 -8.3193053866805169 40.158165018077412 36 39 35 0.80240773124890463 2 7131 4 7155 8 9406
16927 -88.835792812729949 -33.408364994879904 218.88420524624206 171 186 205 1.7368621352512128 14 9403 18 9354 20 8560 21 8716 11 9212
3944 30.211352041725515 5.6162483412563295 68.708068904735669 73 77 43 0.57911966372501567 2 5703 4 5591 3 2524 8 2632 7 5628 15 1921 14 2147 13 2251 12 1744 23 2268 17 2208 24 2001 19 2006 1 2566
16925 -17.969383362086798 -39.330932563024263 224.45834378770186 33 51 27 1.0457308170090682 8 9408 10 8763 11 9192 20 8528 22 9156 21 8679 27 8733 1 9057
3942 3.9372148141375169 2.9554702197518039 38.707914162554829 47 44 35 0.51223322187810716 2 5684 4 5588 8 6217 7 5618 15 5023 14 5470 13 8041 17 8023 24 5404 16 6816 25 5410 5 6112
16923 -39.492251915728126 -49.66149313652231 202.32206372092969 5 24 18 0.53699813601005153 16 7773 17 9016 25 8591 21 8616 28 8839 29 8532 26 8975
16921 -34.637934722819253 -56.370579821748571 215.8028942598275 77 103 71 0.6598357934229655 8 9310 18 8334 19 8836 20 8440 22 9060 21 8598 28 8821
4066 -15.220471297540357 15.046783185303873 41.435676105476567 80 86 79 0.689729372585145 2 7959 4 6359 8 8810 7 8010 23 6534 17 6463 24 6150 16 5417 25 6137 11 8478 20 7834 10 8182 26 6323 6 8304 5 8607
16920 -15.979546982932668 -15.614354315727631 44.225569717480909 0 0 0 3.132005228843866 2 8266 12 3858
3937 -0.54143411494643356 2.6338320561890862 38.116755572359374 46 41 37 0.62511898669410038 2 5625 4 5536 17 5753 23 7988 24 5375 25 5382 18 7286 19 5483 20 5287 21 7521 26 5616 6 5738 5 6075
16918 0.29696899832305113 16.704886951724898 28.199443766871212 28 32 13 0.13388756501417598 18 8097 21 8390 28 6880
3935 2.1487809722239888 2.3995601573548284 38.179353551702107 109 108 104 0.61445754408049713 3 5295 4 5527 15 4991 14 5431 13 5756 12 4710 24 5365 16 4760 25 5357 18 5114 11 5698 22 5579 19 5464 21 5345 29 5303
16917 -13.251125743363847 16.158568236731323 26.336682494227105 110 144 94 0.29445669940581054 18 8111 21 8367 28 6823
3934 -3.1491596927673302 2.8698956353378726 39.219467255313916 46 49 54 0.58978713703526664 9 2226 4 5526 8 2630 15 1842 14 2062 13 2177 12 1735 24 1898
16916 -21.366692096062835 16.345854236276594 26.576556403961799 130 151 112 1.0612460030825726 18 8099 21 8343 28 6789 27 6595
3933 34.733145308550313 4.3441727726005928 72.001853375390951 181 159 101 0.71332834009792456 9 5360 4 5521 8 6145 15 1827 14 5444 13 5766 23 5784 17 2127 24 1918 16 1635 18 5149 11 5687 22 1929 19 1925 10 2183 28 5566 27 1983 5 2711 1 5393
16914 -21.542007258229614 16.338158573574262 26.847810146636856 67 88 49 0.82518469324457266 18 6459 21 8336 28 6770 27 6588
3931 35.196180637855775 4.2350562222104715 71.955103169383875 78 101 49 0.82081365986227039 9 2144 4 5519 13 2141 12 1674 23 2160 18 1802 10 2180 1 5387
4059 -22.164927446250363 14.673908507041894 40.149444482514589 68 78 37 0.49683435628550271 9 3336 4 6324 7 6352 14 6148 12 2675 22 3066 26 8264
16913 -21.957044337861792 16.189320893064046 26.628091675674742 45 73 26 0.44826820603817313 18 9124 21 8334 28 9527
3930 -15.769707708168283 7.4119137909322568 71.044642155332198 113 140 82 0.79537335199337333 2 5584 4 5514 9 5466 8 2701 7 2434 15 5065 14 2170 13 5867 24 5528 16 4882 6 5792 5 6067 1 5391
16912 2.0792097075676437 16.466041946157862 30.109156675824284 30 50 15 0.28776889124545219 18 6332 22 7046 21 8327 29 6561
3929 23.277236891582891 5.1649371207139696 74.094886250314019 154 146 114 0.5037526714584849 3 5288 9 7382 4 5512 2 8683 8 6158 7 7580 15 7069 14 7522 13 8029 12 4721 23 5814 17 2154 16 6825 25 5429 18 7310 11 5724 22 7937 19 7775 20 1919 10 5534 21 5431 28 7765 27 7616 26 5696 6 5690 5 8089 1 7298
16911 -14.351917749832648 16.19799904400482 28.07495614880861 111 137 99 0.34022010993045126 18 8058 22 8792 21 8315 29 6605
3928 3.2298984785630283 1.9618006598337818 38.047451502783794 106 98 93 0.55008092805229158 2 5599 4 5503 8 2541 9 2147 15 4967 14 1983 13 5739 12 1662 17 2009 16 1520 25 5329 18 5093 11 5666 22 1836 20 5243 21 5313 28 5466 27 5320 26 5567 1 2430
16910 -26.482193243675876 15.980542667096222 27.723893507638376 135 154 98 0.6761154409612341 20 8171 21 8276 28 8393
16909 4.2334586841110715 15.726351987970995 31.160138715769207 27 36 8 0.50290941166480574 11 8788 20 8116 21 8256 28 3686 29 6441 22 8676
3926 32.070266171369262 4.0721947535085476 75.828770942642947 96 100 54 0.57888762689159889 2 5596 3 5266 4 5485 8 6124 7 5545 15 4982 14 5416 24 1891 25 2035 6 5644 5 5991 1 5354
16907 -1.0897580557725401 16.311308987000583 32.581879201378683 126 118 99 0.3377527981578754 22 8658 21 8241 27 6423 14 8216
3924 -24.192452468773286 7.5720209567944048 76.520255102546628 80 97 43 0.5560094093958089 2 5553 3 5232 4 5479 8 6224 7 2389
16906 4.7829305471530219 15.735746332122261 32.774942707916516 188 174 140 0.48191298407156641 18 6141 21 8214 29 3485
3923 21.114807836809518 4.4148046147146482 77.356330211935685 69 92 33 0.59758144408929958 2 5575 3 5248 4 5467 7 2279 15 4985 24 1912 16 1612 25 2067 10 5502 11 2057 6 5650 5 5983
16905 -25.711158121789381 15.737409481631978 29.538209274818712 198 169 122 0.69255915722915651 19 9516 20 9119 21 8212 28 8351 27 8222 29 8137
3922 3.5100640144992545 1.147995582357884 38.044926564828657 70 62 52 0.57861436573714087 9 5306 4 5437 8 6096 15 4911 14 5340 13 5675 12 4641 23 5673 17 5657 24 5280 16 4672 25 5279 19 5391 10 5475 21 5270 28 5416 27 1763 29 5246 26 5518 6 5622 5 5976 1 5317
16904 -2.5535006136300811 15.605066605695711 33.062833714123776 69 84 48 0.19621343512351819 19 8412 20 8023 21 8174 29 6334
3921 16.018645187009945 4.2945165485225791 79.087616304904884 75 105 42 0.64895803838731969 2 7453 4 5435 8 6116 7 5535 15 4972 16 4783 18 5125 5 5961
16903 -18.868877528399082 15.146419802279741 31.336911154538722 189 169 119 0.37369923705796948 11 8702 19 8408 21 8150
3920 -1.0638325997787585 1.2990321490047034 38.188922100032158 102 108 112 0.60376198479355481 3 5206 4 5429 8 6103 15 4914 13 5682 17 5662 18 5047 19 5400 20 5204 10 5490 29 5255 6 2366
16902 -18.896797765591696 15.184442602972213 31.443316981005875 189 169 119 0.7242288755833165 19 8409 21 8149 29 8056
3919 -1.475971137899188 1.309768428051316 38.31666934104711 70 74 76 0.4279943688245833 9 5312 4 5428 8 6102 12 4647 25 1910 19 5399 10 5494 21 5286 28 5428 29 1874 26 1939
16901 -24.784301761807306 15.422120731095911 32.416794482282711 244 216 169 0.66083205588847804 20 7988 21 8136 27 8129
3918 37.181635968988793 2.8358236712344005 81.666421083252487 197 181 144 0.55944820584372978 9 5285 4 5423 8 6067 7 5510 15 4930 14 5367 13 5694 12 6614 23 7939 17 5728 24 5345 16 4737 25 5325 18 7254 11 7949 22 7878 19 7713 20 7346 10 7566 28 7713 27 5372 29 5330 26 2039 6 5596 5 5934 1 7233
4046 28.766522708644661 10.208509413691797 48.525806484817458 116 141 91 0.81911238888684867 9 5809 4 6163 8 3427 7 3128 17 2773 25 2744 26 2666 6 3191 5 3683
16900 -29.595267474333951 15.306004735844711 32.258994627807219 151 179 115 0.35822457830545468 19 8378 20 7980 21 8120
3917 4.2032564467199247 0.72052664377621023 38.351989107151553 84 81 79 0.41461998682769918 2 5511 4 5408 8 2397 6 2299 24 1703
4045 28.386327614907575 10.346283185551997 48.844684315310488 162 181 130 0.720321375168686 9 2879 4 6162 8 3439 7 3134 17 2778 16 2245 26 2676 6 3196 5 3686
16899 -31.620145391505851 15.775548807910855 33.828466095197641 54 78 29 0.79963827379658958 20 7964 21 8109 28 6404
3916 15.585114258818866 3.6470612135422824 83.939677248088984 66 97 37 0.69085647451099519 2 7422 9 5295 4 5398 8 6080 7 5506 13 5712 12 4666 23 2118 17 2051 24 5368 27 5387
16898 8.9006757495841171 15.188517756769274 36.738788127476269 132 133 117 0.31566535138234453 19 8311 22 8512 21 8101 29 7984
3915 5.5923812084938751 0.26830050391524218 37.831803324451847 42 39 35 0.48169798770854722 9 5254 4 5383 13 5629 12 4591 24 5236 25 5240 18 5007 22 5454 19 5351 20 5147 10 5405 21 5210 28 5365 29 5212 26 5469 1 5260
16897 -31.122701640340026 15.070759210207623 33.999494411101907 47 72 14 0.57276457888654375 20 7924 21 8068 28 6330
16896 -16.493746813564332 15.463704144245989 37.052010581345264 33 51 14 0.22142447963979114 18 7785 21 8061 29 7976
